ply
format ascii 1.0
element vertex 1181
property float x
property float y
property float z
property uchar red
property uchar green
property uchar blue
end_header
-0.852546 1.726330 -5.099033 161 199 216
-0.847465 1.726783 -5.100371 160 197 213
-0.842161 1.726785 -5.100378 157 194 209
-0.837023 1.727129 -5.101394 155 192 207
-0.832114 1.727955 -5.103832 155 192 206
-0.827194 1.728767 -5.106230 155 192 206
-0.822129 1.729284 -5.107759 156 192 206
-0.382415 1.687853 -4.985384 119 146 153
-0.377002 1.686835 -4.982377 119 146 153
-0.371427 1.685051 -4.977108 119 146 153
-0.366085 1.684294 -4.974872 119 146 153
-0.360548 1.682600 -4.969868 119 146 153
-0.354997 1.680795 -4.964537 120 147 155
-0.349633 1.679829 -4.961684 120 147 156
-0.344297 1.678975 -4.959162 121 148 157
-0.338759 1.677098 -4.953618 120 148 156
-0.333396 1.676039 -4.950490 121 149 157
-0.328013 1.674844 -4.946960 122 149 158
-0.322829 1.674642 -4.946362 123 151 158
-0.318042 1.676530 -4.951940 122 151 157
-0.313046 1.677359 -4.954387 123 152 158
1.263084 1.817161 -5.367319 99 136 165
1.267822 1.815952 -5.363748 102 139 168
1.272729 1.814993 -5.360916 101 137 167
1.277626 1.814029 -5.358067 99 136 166
1.282504 1.813047 -5.355168 100 137 168
1.287367 1.812052 -5.352228 102 138 170
1.292167 1.810976 -5.349051 103 139 171
1.296811 1.809693 -5.345261 106 143 175
1.301495 1.808477 -5.341668 107 146 177
1.306328 1.807476 -5.338713 105 144 175
1.310977 1.806231 -5.335036 107 145 179
1.315674 1.805062 -5.331581 110 148 182
1.320410 1.803956 -5.328316 111 149 182
1.324726 1.802287 -5.323386 118 157 190
1.382025 1.783343 -5.267431 144 186 225
1.386283 1.781774 -5.262795 146 188 228
1.390621 1.780319 -5.258500 147 190 230
1.395342 1.779366 -5.255683 147 190 230
1.400239 1.778642 -5.253545 147 190 229
1.404297 1.776862 -5.248288 151 195 233
1.407943 1.774578 -5.241541 159 202 240
1.411927 1.772734 -5.236096 162 208 242
1.416208 1.771277 -5.231791 165 211 246
1.420603 1.769972 -5.227939 167 213 246
1.425366 1.769135 -5.225467 167 213 246
1.429967 1.768104 -5.222420 167 213 242
1.434225 1.766658 -5.218150 171 217 246
1.438260 1.764949 -5.213101 175 220 248
1.441612 1.762418 -5.205625 183 228 255
1.445447 1.760494 -5.199943 189 231 252
1.449925 1.759365 -5.196608 190 232 252
1.454343 1.758172 -5.193085 195 235 251
1.458270 1.756396 -5.187839 200 240 254
1.461116 1.753336 -5.178801 212 249 255
1.464676 1.751153 -5.172353 218 254 255
1.468466 1.749258 -5.166756 228 254 255
1.472628 1.747820 -5.162509 233 254 255
1.875306 1.568175 -4.631893 167 191 215
1.878901 1.567156 -4.628882 166 190 214
1.882570 1.566203 -4.626067 165 189 213
1.887447 1.566256 -4.626225 163 187 211
1.892393 1.566368 -4.626555 162 186 209
1.897190 1.566355 -4.626518 160 185 207
1.901268 1.565750 -4.624732 159 185 206
1.906759 1.566310 -4.626384 157 184 205
1.912252 1.566868 -4.628031 155 182 203
1.917168 1.566951 -4.628278 154 181 202
1.922791 1.567611 -4.630226 153 180 202
1.927069 1.567173 -4.628933 153 179 201
1.933935 1.568837 -4.633849 151 178 200
1.938639 1.568743 -4.633572 151 178 199
1.944567 1.569639 -4.636217 150 177 198
1.949911 1.570059 -4.637457 149 176 196
1.955550 1.570713 -4.639390 149 176 196
2.334365 1.598814 -4.722391 116 135 148
2.339668 1.599081 -4.723181 117 136 149
2.344323 1.598906 -4.722661 117 135 148
2.349773 1.599272 -4.723743 117 136 149
2.355166 1.599598 -4.724706 119 137 150
2.360413 1.599823 -4.725371 120 138 151
2.365613 1.600016 -4.725942 120 139 151
2.370666 1.600109 -4.726214 121 139 152
2.375672 1.600170 -4.726395 121 139 152
2.380627 1.600196 -4.726473 120 138 151
2.385573 1.600216 -4.726531 120 138 150
2.390230 1.600042 -4.726018 121 139 151
2.394183 1.599399 -4.724120 121 139 151
2.397714 1.598477 -4.721397 121 139 151
-1.661188 1.718121 -5.090425 173 217 237
-1.655935 1.718163 -5.090550 175 220 240
-1.650559 1.718079 -5.090300 177 222 242
-1.645424 1.718246 -5.090794 180 225 244
-1.639965 1.718074 -5.090286 182 227 246
-1.634155 1.717532 -5.088680 183 228 247
-1.628310 1.716950 -5.086954 185 229 247
-1.622271 1.716158 -5.084610 186 230 246
-1.616217 1.715347 -5.082205 188 232 248
-1.610722 1.715124 -5.081546 191 237 250
-1.605616 1.715315 -5.082112 196 241 252
-1.600477 1.715473 -5.082580 201 244 251
-1.595284 1.715574 -5.082880 205 247 254
-1.589853 1.715418 -5.082417 209 248 253
-1.584253 1.715078 -5.081410 210 250 254
-1.578761 1.714854 -5.080746 213 251 252
-1.572647 1.713950 -5.078068 214 251 252
-1.567471 1.714066 -5.078411 223 252 252
-1.561979 1.713836 -5.077728 224 253 253
-1.557468 1.714683 -5.080239 230 255 255
-1.551661 1.714106 -5.078530 232 255 255
-1.546271 1.713986 -5.078175 237 255 255
-0.938802 1.723594 -5.106640 237 255 255
-0.933754 1.724080 -5.108080 236 255 255
-0.928977 1.725076 -5.111030 232 254 255
-0.923788 1.725312 -5.111731 228 253 255
-0.917341 1.723189 -5.105440 215 250 255
-0.908985 1.717434 -5.088390 204 240 247
-0.904511 1.718991 -5.093001 194 233 248
-0.899778 1.720069 -5.096195 189 227 242
-0.894911 1.720904 -5.098670 184 223 239
-0.890235 1.722117 -5.102265 180 219 235
-0.885172 1.722591 -5.103669 176 215 232
-0.879985 1.722829 -5.104373 174 214 231
-0.874788 1.723051 -5.105030 171 210 228
-0.869773 1.723634 -5.106760 169 207 225
-0.864829 1.724367 -5.108930 166 204 223
-0.859728 1.724795 -5.110198 163 201 220
-0.854849 1.725674 -5.112803 161 199 217
-0.849871 1.726365 -5.114849 160 198 216
-0.844720 1.726710 -5.115872 158 196 213
-0.839726 1.727384 -5.117868 157 195 212
-0.834656 1.727907 -5.119420 157 195 210
-0.829635 1.728542 -5.121299 157 195 209
-0.824578 1.729106 -5.122972 157 195 209
-0.382843 1.684552 -4.990968 115 142 149
-0.377454 1.683668 -4.988347 117 144 153
-0.371865 1.681857 -4.982984 119 146 154
-0.366405 1.680584 -4.979211 118 145 154
-0.361066 1.679842 -4.977011 118 145 154
-0.355493 1.677973 -4.971475 118 145 154
-0.349906 1.675979 -4.965567 119 146 155
-0.344367 1.674159 -4.960176 120 147 156
-0.339268 1.674458 -4.961061 121 148 157
-0.333946 1.673646 -4.958656 120 149 157
-0.328429 1.671816 -4.953232 121 150 158
-0.323021 1.670493 -4.949313 121 150 158
-0.317988 1.671093 -4.951090 121 150 158
-0.312887 1.671356 -4.951870 121 150 156
1.263760 1.812548 -5.370191 98 133 161
1.268413 1.811217 -5.366248 104 139 167
1.273334 1.810278 -5.363465 103 138 168
1.278139 1.809182 -5.360219 102 138 167
1.283028 1.808215 -5.357355 102 139 168
1.287939 1.807287 -5.354605 100 137 167
1.292639 1.806073 -5.351007 102 138 170
1.297248 1.804741 -5.347060 108 144 176
1.301882 1.803457 -5.343257 109 146 177
1.306355 1.801961 -5.338823 112 148 180
1.311098 1.800848 -5.335527 112 148 182
1.316023 1.799994 -5.332997 110 146 180
1.320689 1.798793 -5.329439 110 146 181
1.324967 1.797077 -5.324355 119 155 189
1.381769 1.777535 -5.266456 144 186 226
1.385909 1.775820 -5.261376 148 190 230
1.390420 1.774594 -5.257741 150 192 232
1.395115 1.773609 -5.254825 150 192 232
1.400163 1.773081 -5.253260 149 191 230
1.404649 1.771847 -5.249605 151 194 231
1.408103 1.769326 -5.242135 157 201 237
1.411810 1.767142 -5.235663 162 208 241
1.415689 1.765188 -5.229875 167 213 246
1.419940 1.763712 -5.225500 170 216 249
1.424523 1.762658 -5.222377 170 216 248
1.429445 1.762029 -5.220515 168 213 242
1.433814 1.760726 -5.216655 171 216 245
1.437806 1.758972 -5.211457 177 221 246
1.440715 1.755911 -5.202387 187 232 255
1.444027 1.753362 -5.194837 198 236 253
1.447969 1.751594 -5.189598 202 240 254
1.451784 1.749686 -5.183946 211 244 254
1.455834 1.748075 -5.179172 216 248 255
1.459485 1.745998 -5.173019 226 252 255
1.463502 1.744373 -5.168204 231 254 255
1.467498 1.742735 -5.163352 238 255 255
1.471727 1.741384 -5.159348 242 255 255
1.880776 1.567917 -4.645403 163 187 212
1.884812 1.567255 -4.643443 162 186 210
1.889278 1.566954 -4.642549 161 186 209
1.893638 1.566566 -4.641400 160 185 207
1.898511 1.566603 -4.641510 159 184 206
1.904114 1.567242 -4.643402 157 182 204
1.909135 1.567399 -4.643867 156 181 203
1.914018 1.567442 -4.643995 155 180 202
1.919321 1.567829 -4.645140 153 179 201
1.924289 1.567940 -4.645470 153 179 200
1.930246 1.568854 -4.648179 151 178 199
1.936106 1.569685 -4.650642 150 177 198
1.941235 1.569922 -4.651341 150 177 198
1.946140 1.569975 -4.651502 150 177 197
1.951781 1.570621 -4.653414 149 176 196
1.957876 1.571629 -4.656399 148 174 194
1.963949 1.572613 -4.659317 148 174 193
2.341908 1.599053 -4.737652 122 140 152
2.347192 1.599295 -4.738369 123 142 153
2.352257 1.599388 -4.738645 122 141 152
2.357331 1.599487 -4.738936 122 141 153
2.362409 1.599588 -4.739236 121 141 152
2.367484 1.599686 -4.739528 122 141 152
2.372494 1.599741 -4.739689 121 140 152
2.377339 1.599683 -4.739519 121 141 152
2.381651 1.599268 -4.738289 121 141 152
2.385398 1.598477 -4.735944 121 140 151
2.388951 1.597559 -4.733224 121 139 151
2.392364 1.596551 -4.730239 121 139 151
2.396748 1.596194 -4.729180 121 139 151
2.400872 1.595665 -4.727614 121 139 151
-1.666658 1.718466 -5.107185 174 218 237
-1.661411 1.718533 -5.107386 176 221 240
-1.656133 1.718568 -5.107490 179 224 243
-1.650739 1.718483 -5.107237 182 227 246
-1.645007 1.718046 -5.105937 183 228 247
-1.639243 1.717571 -5.104526 184 229 248
-1.633399 1.717009 -5.102855 185 230 248
-1.627111 1.715975 -5.099782 186 232 247
-1.621182 1.715314 -5.097817 189 234 248
-1.615811 1.715241 -5.097601 194 238 250
-1.611045 1.715811 -5.099296 199 243 254
-1.606102 1.716198 -5.100444 204 247 254
-1.600497 1.715875 -5.099486 206 249 255
-1.594954 1.715619 -5.098723 209 250 253
-1.589159 1.715088 -5.097147 210 251 254
-1.582969 1.714126 -5.094288 213 250 251
-1.577492 1.713932 -5.093711 215 252 253
-1.571756 1.713455 -5.092293 225 251 252
-1.566699 1.713717 -5.093071 227 253 254
-1.561521 1.713848 -5.093462 231 255 255
-1.555959 1.713557 -5.092597 233 255 255
-1.550642 1.713534 -5.092529 239 255 255
-0.941343 1.722932 -5.120460 244 255 255
-0.936499 1.723820 -5.123097 243 255 255
-0.931747 1.724887 -5.126267 240 255 255
-0.926788 1.725582 -5.128334 238 255 255
-0.921537 1.725736 -5.128792 229 254 255
-0.915045 1.723556 -5.122313 222 247 250
-0.908823 1.721863 -5.117281 207 241 251
-0.902919 1.720755 -5.113989 198 232 243
-0.897868 1.721269 -5.115516 191 226 243
-0.892917 1.721982 -5.117634 186 221 238
-0.887611 1.722014 -5.117731 179 216 234
-0.882437 1.722305 -5.118594 177 214 232
-0.877191 1.722458 -5.119049 172 210 228
-0.872066 1.722853 -5.120223 169 207 225
-0.867067 1.723501 -5.122150 165 204 223
-0.862072 1.724168 -5.124131 162 201 220
-0.857267 1.725223 -5.127266 161 200 219
-0.852220 1.725803 -5.128990 161 200 219
-0.847325 1.726698 -5.131649 161 200 218
-0.842296 1.727332 -5.133534 160 199 216
-0.837228 1.727892 -5.135200 159 198 214
-0.832114 1.728364 -5.136600 158 197 213
-0.826851 1.728529 -5.137093 158 196 211
-0.383725 1.683229 -5.002463 119 146 153
-0.377932 1.680608 -4.994672 118 145 152
-0.372393 1.679055 -4.990059 117 144 151
-0.366812 1.677269 -4.984750 117 144 153
-0.361406 1.676243 -4.981700 119 146 155
-0.355658 1.673577 -4.973779 118 145 154
-0.350274 1.672571 -4.970788 118 145 154
-0.344697 1.670597 -4.964921 119 146 155
-0.339095 1.668443 -4.958519 119 146 155
-0.333820 1.667858 -4.956780 119 147 155
-0.328583 1.667442 -4.955545 120 147 156
-0.323176 1.666140 -4.951674 120 148 156
-0.317856 1.665252 -4.949038 120 148 156
-0.312484 1.664059 -4.945490 120 147 156
-0.307243 1.663532 -4.943926 120 147 156
-0.302246 1.664333 -4.946305 120 149 155
-0.297136 1.664528 -4.946884 121 150 156
-0.292761 1.668917 -4.959929 125 154 160
-0.289340 1.679003 -4.989904 129 158 163
-0.286842 1.694908 -5.037172 133 162 168
1.235669 1.814927 -5.393862 90 125 153
1.240504 1.813793 -5.390493 92 128 155
1.245323 1.812647 -5.387086 92 127 155
1.250280 1.811710 -5.384302 92 127 155
1.255158 1.810670 -5.381209 91 126 156
1.259919 1.809468 -5.377637 92 128 157
1.264525 1.808056 -5.373442 96 133 162
1.269080 1.806585 -5.369070 102 139 168
1.273869 1.805457 -5.365718 102 139 168
1.278775 1.804504 -5.362886 101 138 168
1.283602 1.803449 -5.359750 101 137 169
1.288552 1.802575 -5.357153 98 134 166
1.293222 1.801319 -5.353421 100 136 168
1.297557 1.799608 -5.348335 109 145 177
1.302043 1.798121 -5.343916 109 148 179
1.306437 1.796520 -5.339158 112 151 182
1.311183 1.795415 -5.335874 112 151 184
1.316176 1.794655 -5.333616 109 148 181
1.320671 1.793225 -5.329366 111 149 185
1.325058 1.791663 -5.324724 117 155 191
1.381944 1.772282 -5.267124 143 185 225
1.385874 1.770304 -5.261245 148 190 230
1.390026 1.768623 -5.256251 152 194 233
1.394646 1.767550 -5.253060 152 194 233
1.399812 1.767173 -5.251941 151 194 232
1.404267 1.765906 -5.248176 153 196 232
1.408150 1.763933 -5.242311 157 201 237
1.411761 1.761635 -5.235482 162 208 241
1.415265 1.759222 -5.228309 170 215 248
1.419208 1.757370 -5.222807 175 219 250
1.423449 1.755901 -5.218439 176 220 251
1.428267 1.755152 -5.216214 176 218 246
1.432796 1.754054 -5.212950 179 221 249
1.436756 1.752270 -5.207650 188 228 249
1.439945 1.749564 -5.199607 196 236 255
1.442305 1.745875 -5.188643 211 244 254
1.445863 1.743657 -5.182053 217 250 255
1.449855 1.741977 -5.177059 227 251 255
1.453978 1.740466 -5.172570 231 254 255
1.458397 1.739321 -5.169164 238 254 255
1.462697 1.738042 -5.165363 240 255 255
1.466918 1.736678 -5.161311 244 255 255
1.471156 1.735344 -5.157346 245 255 255
1.851978 1.571449 -4.670260 172 196 221
1.857232 1.571784 -4.671255 169 194 218
1.861936 1.571654 -4.670869 168 193 217
1.865559 1.570614 -4.667776 166 192 216
1.869965 1.570237 -4.666656 165 191 214
1.874507 1.569976 -4.665881 163 189 213
1.878709 1.569432 -4.664264 162 188 210
1.883178 1.569113 -4.663317 162 187 210
1.887342 1.568543 -4.661622 161 186 208
1.891792 1.568212 -4.660639 160 185 207
1.895627 1.567375 -4.658150 162 184 206
1.900022 1.567004 -4.657049 160 183 204
1.905787 1.567762 -4.659301 158 182 202
1.910582 1.567719 -4.659175 156 181 201
1.915709 1.567949 -4.659858 155 180 200
1.920969 1.568287 -4.660861 154 179 199
1.926576 1.568905 -4.662699 153 178 198
1.931869 1.569265 -4.663768 152 177 199
1.936838 1.569360 -4.664052 152 177 199
1.941806 1.569455 -4.664334 151 178 199
1.947717 1.570310 -4.666873 150 177 197
1.953362 1.570945 -4.668762 149 176 195
1.959526 1.571995 -4.671881 148 175 194
1.965535 1.572915 -4.674615 148 173 193
1.971681 1.573940 -4.677661 147 172 192
2.346368 1.597161 -4.746673 123 142 154
2.352373 1.597886 -4.748829 123 142 154
2.358402 1.598625 -4.751025 123 142 153
2.364064 1.599113 -4.752473 122 141 153
2.369096 1.599172 -4.752650 123 142 153
2.373699 1.598943 -4.751970 122 141 152
2.377753 1.598345 -4.750194 122 141 152
2.381450 1.597511 -4.747714 122 140 152
2.384997 1.596580 -4.744946 121 140 152
2.388813 1.595832 -4.742724 121 139 151
2.392763 1.595177 -4.740777 121 139 151
2.397042 1.594743 -4.739489 121 139 151
2.401465 1.594407 -4.738489 121 139 151
2.405845 1.594043 -4.737409 121 139 151
2.703857 1.558484 -4.631727 92 112 123
2.706839 1.557427 -4.628588 91 111 122
2.709603 1.556250 -4.625088 91 110 121
-1.677808 1.719135 -5.125017 174 217 236
-1.672134 1.718783 -5.123966 175 220 239
-1.666733 1.718709 -5.123745 177 222 241
-1.661308 1.718610 -5.123452 180 225 244
-1.655775 1.718398 -5.122819 182 227 246
-1.650401 1.718350 -5.122677 184 229 248
-1.644298 1.717541 -5.120265 184 230 249
-1.638179 1.716710 -5.117787 185 231 248
-1.632036 1.715848 -5.115216 187 233 248
-1.626134 1.715235 -5.113389 190 235 249
-1.620590 1.714996 -5.112676 195 239 250
-1.616213 1.715995 -5.115655 200 244 253
-1.611168 1.716289 -5.116532 206 248 254
-1.605771 1.716208 -5.116290 208 250 255
-1.599840 1.715555 -5.114343 211 251 253
-1.593815 1.714796 -5.112080 211 251 253
-1.587803 1.714046 -5.109844 217 250 252
-1.582335 1.713880 -5.109349 219 252 253
-1.576874 1.713720 -5.108874 226 252 253
-1.571765 1.713944 -5.109541 229 255 255
-1.566374 1.713860 -5.109291 233 255 255
-0.919179 1.725991 -5.145454 235 254 255
-0.913123 1.724661 -5.141490 222 249 255
-0.906495 1.722229 -5.134241 212 239 246
-0.901148 1.722217 -5.134203 198 229 247
-0.895577 1.721773 -5.132882 191 223 241
-0.890241 1.721778 -5.132896 180 218 236
-0.884909 1.721791 -5.132933 177 215 233
-0.879740 1.722124 -5.133926 172 211 229
-0.874639 1.722595 -5.135330 169 208 226
-0.869600 1.723194 -5.137118 165 206 224
-0.864595 1.723868 -5.139126 162 204 222
-0.859645 1.724662 -5.141492 161 202 220
-0.854720 1.725514 -5.144033 162 203 221
-0.849696 1.726178 -5.146011 162 202 219
-0.844655 1.726815 -5.147911 162 201 218
-0.839451 1.727124 -5.148834 160 199 216
-0.834220 1.727381 -5.149599 159 198 215
-0.828993 1.727650 -5.150401 159 197 213
-0.386782 1.691394 -5.042315 129 156 163
-0.379426 1.682034 -5.014413 120 147 154
-0.373549 1.679062 -5.005553 116 143 150
-0.367652 1.675911 -4.996157 115 142 151
-0.362086 1.674206 -4.991075 116 143 152
-0.356649 1.673051 -4.987633 117 144 153
-0.351231 1.671956 -4.984368 118 145 154
-0.345551 1.669561 -4.977229 118 145 154
-0.340118 1.668306 -4.973486 118 145 154
-0.334492 1.666047 -4.966752 119 146 155
-0.328828 1.663530 -4.959249 119 146 155
-0.323465 1.662476 -4.956106 119 146 155
-0.318515 1.663546 -4.959297 119 146 155
-0.313003 1.661668 -4.953697 119 146 155
-0.307571 1.660158 -4.949197 120 147 156
-0.302401 1.660039 -4.948840 120 148 156
-0.297241 1.659970 -4.948635 120 149 156
-0.292395 1.661680 -4.953733 120 149 156
-0.287753 1.664632 -4.962534 121 150 156
-0.282885 1.666363 -4.967695 123 152 158
1.382352 1.767325 -5.268677 140 182 221
1.385955 1.764935 -5.261553 146 188 227
1.389706 1.762750 -5.255040 152 195 233
1.393865 1.761100 -5.250120 155 197 234
1.398492 1.760051 -5.246992 156 198 235
1.403158 1.759058 -5.244032 156 199 234
1.407548 1.757728 -5.240068 158 202 236
1.411443 1.755793 -5.234301 162 207 240
1.414457 1.752782 -5.225323 173 216 249
1.417982 1.750424 -5.218294 181 222 250
1.421651 1.748262 -5.211848 187 227 254
1.425746 1.746638 -5.207006 194 229 253
1.430340 1.745634 -5.204015 197 232 254
1.434057 1.743572 -5.197866 206 239 253
1.437567 1.741276 -5.191021 212 245 255
1.440572 1.738386 -5.182407 228 251 255
1.444534 1.736669 -5.177289 232 255 255
1.448761 1.735282 -5.173152 239 254 255
1.453084 1.734020 -5.169390 241 255 255
1.457677 1.733088 -5.166612 244 255 255
1.858044 1.571722 -4.685555 168 193 217
1.862170 1.571092 -4.683675 167 192 215
1.866868 1.570946 -4.683241 165 190 214
1.870990 1.570317 -4.681366 164 189 212
1.875297 1.569846 -4.679963 163 188 211
1.879979 1.569691 -4.679501 162 187 209
1.885324 1.570089 -4.680686 160 185 207
1.889368 1.569404 -4.678644 160 185 207
1.893402 1.568715 -4.676590 161 184 205
1.898057 1.568542 -4.676075 160 183 204
1.902928 1.568548 -4.676093 160 182 203
1.907900 1.568637 -4.676358 159 181 202
1.913836 1.569516 -4.678978 156 180 201
1.917529 1.568556 -4.676116 156 181 201
1.922982 1.569037 -4.677550 155 180 200
1.928183 1.569310 -4.678363 154 179 199
1.933419 1.569610 -4.679259 153 178 198
1.939275 1.570412 -4.681648 152 177 197
1.944281 1.570521 -4.681975 151 177 197
1.950621 1.571706 -4.685508 149 176 197
-1.683484 1.719603 -5.142356 176 219 238
-1.677669 1.719125 -5.140928 176 221 240
-1.672159 1.718958 -5.140426 178 223 242
-1.666672 1.718813 -5.139993 180 225 244
-1.661214 1.718697 -5.139648 183 228 247
-1.655490 1.718305 -5.138474 184 229 248
-1.649532 1.717666 -5.136564 184 231 248
-1.643678 1.717131 -5.134965 186 233 249
-1.637766 1.716533 -5.133176 189 235 250
-1.631394 1.715447 -5.129928 191 237 250
-1.626256 1.715656 -5.130554 197 241 250
-1.621585 1.716359 -5.132657 203 246 254
-1.616114 1.716219 -5.132237 208 249 254
-1.610637 1.716072 -5.131796 211 251 255
-1.604804 1.715542 -5.130213 215 250 254
-1.598840 1.714868 -5.128198 217 251 255
-1.593595 1.714964 -5.128484 223 253 255
-1.587745 1.714407 -5.126819 224 254 255
-1.582468 1.714467 -5.126998 231 255 255
-1.576712 1.714007 -5.125622 232 255 255
-1.571250 1.713864 -5.125195 236 255 255
-0.915999 1.724729 -5.157685 236 253 255
-0.910317 1.724128 -5.155889 229 246 250
-0.904441 1.723150 -5.152962 206 233 250
-0.898543 1.722119 -5.149879 196 224 241
-0.892782 1.721339 -5.147547 180 220 237
-0.887402 1.721288 -5.147395 175 217 235
-0.882305 1.721789 -5.148893 171 213 230
-0.877173 1.722229 -5.150208 168 210 226
-0.872152 1.722892 -5.152192 166 209 225
-0.867129 1.723560 -5.154191 164 207 224
-0.862151 1.724326 -5.156481 163 205 223
-0.857137 1.725028 -5.158579 162 203 221
-0.851993 1.725478 -5.159925 163 202 220
-0.846851 1.725936 -5.161296 162 201 218
-0.841529 1.726031 -5.161578 161 200 217
-0.836270 1.726258 -5.162257 159 198 215
-0.830966 1.726394 -5.162664 158 196 212
-0.391822 1.708122 -5.108023 140 169 175
-0.384463 1.699080 -5.080984 135 162 169
-0.377919 1.693436 -5.064105 132 159 166
-0.369915 1.680999 -5.026913 126 153 160
-0.363127 1.673814 -5.005427 118 145 153
-0.357274 1.670789 -4.996381 117 144 153
-0.351589 1.668472 -4.989452 116 143 152
-0.346237 1.667689 -4.987112 117 144 153
-0.340748 1.666211 -4.982690 118 145 154
-0.335212 1.664458 -4.977449 118 145 154
-0.329504 1.661781 -4.969444 118 145 154
-0.323857 1.659333 -4.962121 118 145 154
-0.318570 1.658675 -4.960157 119 146 155
-0.313268 1.657918 -4.957891 119 146 155
-0.307914 1.656857 -4.954718 119 146 154
-0.302677 1.656401 -4.953354 119 147 154
-0.297307 1.655189 -4.949731 120 147 155
-0.292148 1.655129 -4.949553 120 148 155
-0.287217 1.656378 -4.953286 120 148 154
-0.282210 1.657231 -4.955839 120 148 155
1.382331 1.761818 -5.268597 140 182 220
1.385879 1.759365 -5.261263 146 188 225
1.389437 1.756945 -5.254025 153 196 232
1.393334 1.754969 -5.248117 156 200 235
1.397507 1.753356 -5.243293 159 202 237
1.401932 1.752072 -5.239452 160 203 238
1.406646 1.751156 -5.236712 162 205 240
1.410525 1.749211 -5.230898 168 210 244
1.413754 1.746479 -5.222728 178 219 251
1.416971 1.743753 -5.214575 189 228 251
1.420184 1.741042 -5.206469 198 235 255
1.423730 1.738760 -5.199644 210 241 255
1.427757 1.737078 -5.194615 214 245 255
1.431564 1.735144 -5.188831 223 249 255
1.435337 1.733184 -5.182969 230 255 255
1.439705 1.731952 -5.179286 238 254 255
1.443871 1.730490 -5.174913 240 255 255
1.448243 1.729283 -5.171303 244 255 255
1.452663 1.728142 -5.167892 245 255 255
1.456920 1.726817 -5.163929 247 255 255
1.862811 1.570869 -4.697577 165 192 214
1.867479 1.570685 -4.697029 164 190 212
1.872657 1.570931 -4.697762 163 188 211
1.877405 1.570815 -4.697416 162 187 210
1.882148 1.570696 -4.697061 161 186 208
1.886714 1.570431 -4.696266 160 185 207
1.891799 1.570597 -4.696763 159 184 205
1.895763 1.569833 -4.694480 159 184 205
1.901936 1.570899 -4.697667 159 181 202
1.905919 1.570156 -4.695444 159 181 202
1.911148 1.570439 -4.696291 158 180 201
1.915430 1.569944 -4.694813 158 180 201
1.920900 1.570425 -4.696249 157 179 200
1.926145 1.570718 -4.697127 156 178 199
1.931799 1.571343 -4.698996 154 178 198
1.936327 1.571052 -4.698125 153 178 198
1.941722 1.571463 -4.699355 152 177 197
1.947378 1.572084 -4.701210 151 176 196
1.953290 1.572906 -4.703670 150 175 196
1.958912 1.573493 -4.705423 149 174 196
-1.688708 1.719573 -5.158312 176 219 238
-1.683232 1.719460 -5.157972 177 221 240
-1.677640 1.719227 -5.157275 179 223 242
-1.672207 1.719157 -5.157064 181 226 245
-1.666333 1.718631 -5.155484 183 228 247
-1.660695 1.718346 -5.154630 184 230 247
-1.654688 1.717675 -5.152617 185 231 247
-1.648448 1.716758 -5.149867 186 232 248
-1.642586 1.716231 -5.148285 190 235 250
-1.636981 1.715968 -5.147498 194 239 252
-1.631702 1.716047 -5.147734 199 243 252
-1.626354 1.716053 -5.147753 204 247 255
-1.621183 1.716247 -5.148334 209 250 255
-1.615581 1.715985 -5.147549 210 250 255
-1.609225 1.714918 -5.144346 214 249 253
-1.603574 1.714596 -5.143382 216 251 255
-1.598071 1.714432 -5.142888 224 252 255
-1.593118 1.714858 -5.144168 227 255 255
-0.907998 1.724546 -5.173229 212 237 253
-0.901442 1.722302 -5.166497 199 226 243
-0.895456 1.721125 -5.162965 181 221 238
-0.890204 1.721352 -5.163647 176 219 236
-0.884930 1.721542 -5.164217 171 214 231
-0.879735 1.721886 -5.165248 168 211 228
-0.874569 1.722293 -5.166471 166 209 226
-0.869561 1.723018 -5.168646 164 207 224
-0.864407 1.723459 -5.169970 163 205 222
-0.859273 1.723949 -5.171437 162 203 221
-0.854179 1.724524 -5.173164 162 202 219
-0.848726 1.724376 -5.172719 160 199 216
-0.843620 1.724938 -5.174405 159 198 215
-0.838350 1.725167 -5.175092 158 197 214
-0.833123 1.725491 -5.176064 158 196 212
-0.382697 1.709514 -5.128136 144 172 178
-0.376420 1.705241 -5.115320 139 166 173
-0.366115 1.682335 -5.046607 128 155 162
-0.358512 1.671363 -5.013694 119 146 153
-0.352502 1.667600 -5.002404 115 142 150
-0.346543 1.663972 -4.991522 115 142 149
-0.341172 1.663096 -4.988895 117 144 151
-0.335734 1.661866 -4.985203 116 143 152
-0.329935 1.658777 -4.975939 117 144 153
-0.324203 1.655939 -4.967424 117 144 153
-0.318817 1.654800 -4.964009 118 145 154
-0.313197 1.652391 -4.956780 119 146 154
-0.307815 1.651173 -4.953126 118 145 153
-0.302638 1.651037 -4.952720 118 145 153
-0.297313 1.650074 -4.949832 119 146 153
-0.292058 1.649470 -4.948020 119 146 153
-0.286849 1.649110 -4.946938 120 147 154
-0.281569 1.648322 -4.944576 120 147 154
-0.276646 1.649637 -4.948518 120 147 154
-0.271794 1.651431 -4.953900 119 146 153
-0.266753 1.652118 -4.955964 119 147 153
-0.262033 1.654865 -4.964202 121 149 154
-0.257911 1.661572 -4.984321 125 153 157
-0.254583 1.673781 -5.020947 129 157 161
-0.251350 1.687132 -5.060997 131 159 163
-0.247853 1.699244 -5.097330 133 161 165
-0.244107 1.710149 -5.130040 135 163 167
-0.241024 1.726285 -5.178445 140 168 172
-0.236774 1.734603 -5.203398 145 173 176
0.689754 1.838372 -5.514680 120 147 156
0.695710 1.838953 -5.516422 119 146 155
0.701549 1.839219 -5.517222 119 146 155
0.707494 1.839756 -5.518832 118 145 154
0.713386 1.840148 -5.520007 118 145 154
0.719336 1.840682 -5.521608 116 144 155
0.725348 1.841364 -5.523656 115 143 154
1.381866 1.755748 -5.266827 141 183 220
1.385766 1.753749 -5.260833 145 188 223
1.389316 1.751328 -5.253567 153 196 230
1.392780 1.748816 -5.246032 159 202 237
1.396210 1.746281 -5.238430 165 207 241
1.400196 1.744459 -5.232963 170 210 244
1.404533 1.743087 -5.228847 174 214 246
1.408583 1.741369 -5.223695 182 220 249
1.412233 1.739173 -5.217106 190 227 252
1.415041 1.735961 -5.207472 203 237 253
1.418370 1.733411 -5.199821 212 245 255
1.422030 1.731282 -5.193436 223 250 255
1.425993 1.729536 -5.188199 228 254 255
1.430256 1.728167 -5.184090 235 253 255
1.434645 1.726960 -5.180470 237 255 255
1.439130 1.725876 -5.177218 242 255 255
1.443473 1.724631 -5.173484 242 255 255
1.447672 1.723224 -5.169263 246 255 255
1.823814 1.570269 -4.710433 176 200 224
1.829234 1.570715 -4.711773 174 198 222
1.834597 1.571112 -4.712962 172 197 223
1.839147 1.570810 -4.712058 170 196 221
1.843741 1.570549 -4.711275 169 195 218
1.847293 1.569403 -4.707837 169 195 218
1.852008 1.569249 -4.707376 168 194 217
1.856690 1.569068 -4.706833 167 193 215
1.862172 1.569563 -4.708317 165 192 214
1.867040 1.569538 -4.708241 164 191 212
1.871816 1.569436 -4.707936 163 189 210
1.876709 1.569433 -4.707926 163 188 208
1.882616 1.570276 -4.710455 161 186 207
1.887704 1.570433 -4.710926 160 185 206
1.892667 1.570485 -4.711082 160 184 205
1.896873 1.569911 -4.709360 160 183 204
1.902952 1.570885 -4.712283 159 182 202
1.908152 1.571131 -4.713021 158 181 200
1.912803 1.570925 -4.712402 158 180 199
1.918134 1.571277 -4.713458 157 180 199
1.923425 1.571594 -4.714409 156 179 197
1.928755 1.571942 -4.715453 155 178 196
1.934124 1.572320 -4.716586 154 177 196
1.939001 1.572296 -4.716515 152 177 196
1.944641 1.572890 -4.718297 151 176 196
1.949591 1.572924 -4.718400 151 176 196
-1.694117 1.719699 -5.174834 176 219 238
-1.688539 1.719499 -5.174234 178 221 240
-1.683060 1.719400 -5.173936 180 223 242
-1.677484 1.719201 -5.173338 183 226 245
-1.671740 1.718827 -5.172213 185 228 247
-1.666131 1.718592 -5.171504 186 231 248
-1.660004 1.717817 -5.169173 186 232 248
-1.653705 1.716860 -5.166291 188 233 248
-1.647594 1.716091 -5.163980 192 236 249
-1.642182 1.716049 -5.163852 196 240 251
-1.637207 1.716464 -5.165101 201 246 252
-1.631572 1.716188 -5.164270 204 249 254
-1.626289 1.716281 -5.164549 209 250 255
-1.620546 1.715888 -5.163368 210 251 255
-1.614264 1.714920 -5.160455 212 250 251
-1.608681 1.714690 -5.159762 215 253 254
-1.602828 1.714170 -5.158199 224 252 253
-1.597838 1.714573 -5.159410 228 255 255
-0.911105 1.725048 -5.190930 212 240 253
-0.905143 1.723976 -5.187706 200 229 243
-0.899290 1.723100 -5.185069 184 225 241
-0.893468 1.722274 -5.182582 178 221 238
-0.887981 1.722086 -5.182017 173 216 233
-0.882640 1.722183 -5.182309 170 213 230
-0.877152 1.721989 -5.181727 166 209 226
-0.872027 1.722513 -5.183303 164 207 224
-0.866679 1.722599 -5.183563 162 203 221
-0.861365 1.722754 -5.184027 160 201 219
-0.856162 1.723134 -5.185171 159 199 216
-0.850839 1.723276 -5.185600 158 197 214
-0.845771 1.723940 -5.187596 157 196 213
-0.840613 1.724427 -5.189061 156 195 212
-0.835425 1.724860 -5.190365 156 194 210
-0.377849 1.706373 -5.134736 144 172 179
-0.371755 1.702921 -5.124347 140 168 174
-0.364529 1.694110 -5.097834 135 162 169
-0.355739 1.677663 -5.048343 128 155 162
-0.348515 1.668218 -5.019922 123 150 157
-0.342140 1.662613 -5.003054 118 145 152
-0.336268 1.659314 -4.993129 116 143 151
-0.330654 1.657205 -4.986783 115 142 149
-0.325249 1.656097 -4.983448 115 142 151
-0.319889 1.655183 -4.980697 116 143 152
-0.314443 1.653783 -4.976485 117 144 152
-0.308924 1.651953 -4.970978 117 144 152
-0.303492 1.650527 -4.966686 118 145 152
-0.298106 1.649313 -4.963034 118 145 152
-0.293065 1.649992 -4.965075 118 145 152
-0.287873 1.649833 -4.964599 119 146 153
-0.282505 1.648643 -4.961019 119 147 153
-0.277306 1.648409 -4.960314 119 146 152
-0.272267 1.649144 -4.962523 118 146 151
-0.267157 1.649457 -4.963466 118 146 151
-0.262236 1.650981 -4.968052 119 146 151
-0.257384 1.653006 -4.974145 120 148 152
-0.252749 1.656533 -4.984761 122 151 155
-0.248529 1.662991 -5.004193 124 153 157
-0.244703 1.672413 -5.032546 127 155 159
-0.242649 1.694631 -5.099403 133 161 164
-0.239664 1.711187 -5.149223 139 167 171
-0.235654 1.721015 -5.178795 144 172 175
0.691360 1.836904 -5.527522 117 146 154
0.697243 1.837255 -5.528578 117 146 154
0.703234 1.837883 -5.530470 116 145 153
0.709099 1.838175 -5.531349 116 145 153
0.714925 1.838364 -5.531916 116 145 153
0.721113 1.839470 -5.535244 114 142 153
1.380946 1.749103 -5.263317 143 186 222
1.384777 1.747030 -5.257079 148 191 225
1.388482 1.744815 -5.250413 155 198 232
1.391728 1.742043 -5.242071 163 206 240
1.394656 1.738894 -5.232597 172 215 245
1.398504 1.736915 -5.226640 180 222 247
1.402006 1.734522 -5.219439 189 228 251
1.405570 1.732223 -5.212521 200 235 253
1.409613 1.730530 -5.207428 207 241 255
1.413323 1.728443 -5.201148 215 247 254
1.416843 1.726141 -5.194221 223 253 255
1.420912 1.724523 -5.189351 230 254 255
1.425301 1.723303 -5.185681 233 255 255
1.429781 1.722202 -5.182369 236 255 255
1.434205 1.721043 -5.178880 237 255 255
1.438517 1.719759 -5.175014 241 255 255
1.442824 1.718478 -5.171161 241 255 255
1.829362 1.570130 -4.724761 171 199 223
1.835095 1.570832 -4.726871 169 196 220
1.839547 1.570435 -4.725677 168 195 219
1.844996 1.570890 -4.727046 166 194 217
1.849386 1.570442 -4.725699 166 193 215
1.853721 1.569951 -4.724220 166 192 215
1.858603 1.569923 -4.724138 165 191 213
1.864012 1.570341 -4.725395 164 191 212
1.868855 1.570281 -4.725214 163 190 211
1.873817 1.570320 -4.725333 162 189 209
1.877893 1.569619 -4.723223 162 189 208
1.883405 1.570119 -4.724726 161 187 207
1.889487 1.571090 -4.727648 160 186 205
1.894834 1.571446 -4.728719 159 185 204
1.899695 1.571399 -4.728577 158 184 203
1.904345 1.571177 -4.727911 158 183 203
1.909118 1.571058 -4.727553 158 183 202
1.916012 1.572681 -4.732435 156 180 200
1.920555 1.572370 -4.731500 156 180 199
1.925541 1.572423 -4.731658 156 180 199
1.930882 1.572765 -4.732687 154 179 198
1.936223 1.573105 -4.733711 153 178 196
1.942289 1.574030 -4.736496 152 177 194
1.947297 1.574096 -4.736693 151 177 194
1.952973 1.574700 -4.738512 150 176 194
1.957766 1.574591 -4.738184 150 176 193
-1.699784 1.720051 -5.192145 176 219 238
-1.694173 1.719837 -5.191499 179 222 240
-1.688479 1.719537 -5.190595 181 224 243
-1.682811 1.719263 -5.189765 183 227 245
-1.677180 1.719024 -5.189045 183 229 247
-1.671166 1.718390 -5.187131 185 230 248
-1.664918 1.717510 -5.184475 186 232 248
-1.658975 1.716940 -5.182755 188 234 248
-1.653065 1.716401 -5.181129 194 238 250
-1.647996 1.716735 -5.182135 199 243 254
-1.642961 1.717105 -5.183252 204 248 254
-1.636870 1.716372 -5.181039 206 250 255
-1.631451 1.716340 -5.180943 210 251 255
-1.625480 1.715725 -5.179087 210 251 255
-1.619519 1.715118 -5.177254 214 252 253
-1.613750 1.714709 -5.176020 216 254 255
-1.608553 1.714909 -5.176623 229 255 255
-1.602829 1.714545 -5.175525 230 255 255
-0.913433 1.724044 -5.204198 209 243 251
-0.908323 1.724619 -5.205933 199 235 244
-0.902931 1.724662 -5.206063 187 228 244
-0.897125 1.723910 -5.203794 181 224 241
-0.891120 1.722765 -5.200339 176 217 235
-0.885539 1.722430 -5.199327 172 213 231
-0.879816 1.721814 -5.197467 168 210 228
-0.874445 1.721883 -5.197676 164 207 224
-0.869015 1.721835 -5.197531 162 203 221
-0.863754 1.722126 -5.198408 161 201 219
-0.858493 1.722418 -5.199289 159 198 216
-0.853223 1.722695 -5.200128 158 197 214
-0.847986 1.723046 -5.201185 156 195 212
-0.842773 1.723447 -5.202397 155 194 210
-0.837581 1.723898 -5.203758 155 193 209
-0.378874 1.705645 -5.148661 146 175 181
-0.373589 1.705965 -5.149624 146 175 181
-0.368231 1.705958 -5.149603 146 174 180
-0.362347 1.703479 -5.142121 142 169 176
-0.354683 1.692427 -5.108758 135 162 169
-0.344261 1.667682 -5.034065 124 151 158
-0.337254 1.658971 -5.007769 117 144 151
-0.330928 1.653389 -4.990920 113 140 147
-0.325041 1.649854 -4.980250 113 140 148
-0.320374 1.652502 -4.988243 115 142 151
-0.315021 1.651640 -4.985639 116 143 150
-0.309693 1.650882 -4.983350 116 143 150
-0.304211 1.649260 -4.978456 117 144 151
-0.298651 1.647157 -4.972108 118 145 152
-0.293315 1.646235 -4.969325 118 145 152
-0.288360 1.647452 -4.972998 118 145 152
-0.283100 1.646947 -4.971473 118 145 152
-0.277880 1.646656 -4.970595 118 145 151
-0.272611 1.646054 -4.968779 118 145 151
-0.267328 1.645352 -4.966660 118 146 151
-0.262241 1.645843 -4.968140 118 146 151
-0.257208 1.646708 -4.970751 119 147 151
-0.252183 1.647652 -4.973602 119 147 151
-0.247523 1.651079 -4.983947 118 147 151
-0.242949 1.655233 -4.996487 120 148 152
-0.239797 1.669469 -5.039460 126 154 157
-0.237330 1.689220 -5.099079 133 161 165
-0.234232 1.705275 -5.147542 140 168 171
0.692965 1.835405 -5.540354 115 144 152
0.699067 1.836297 -5.543046 114 143 151
0.704899 1.836471 -5.543571 114 143 151
0.710822 1.836875 -5.544790 114 143 151
0.716509 1.836671 -5.544173 115 144 152
0.722620 1.837545 -5.546814 113 141 152
1.329472 1.762480 -5.320221 117 155 191
1.378844 1.740975 -5.255305 152 194 228
1.382911 1.739216 -5.249997 157 200 233
1.386981 1.737473 -5.244737 165 207 238
1.389666 1.734017 -5.234303 177 218 246
1.392350 1.730586 -5.223947 189 230 252
1.395998 1.728375 -5.217272 198 241 253
1.399956 1.726565 -5.211808 205 245 255
1.403684 1.724484 -5.205527 211 248 254
1.407714 1.722790 -5.200413 216 251 255
1.412284 1.721767 -5.197324 222 252 255
1.416528 1.720357 -5.193068 225 254 255
1.420776 1.718961 -5.188854 229 255 255
1.425025 1.717577 -5.184676 231 255 255
1.429297 1.716231 -5.180615 236 255 255
1.433515 1.714831 -5.176388 238 255 255
1.437842 1.713572 -5.172587 241 255 255
1.442028 1.712154 -5.168307 241 255 255
1.833466 1.568728 -4.735361 170 197 219
1.839074 1.569311 -4.737121 168 194 217
1.844327 1.569588 -4.737957 167 194 215
1.849919 1.570151 -4.739658 165 192 213
1.855534 1.570731 -4.741409 164 191 212
1.860354 1.570637 -4.741124 163 190 211
1.865869 1.571129 -4.742609 162 189 210
1.871027 1.571318 -4.743179 161 188 209
1.876646 1.571892 -4.744912 160 187 207
1.880852 1.571282 -4.743072 160 187 206
1.885642 1.571163 -4.742711 160 187 206
1.890947 1.571473 -4.743646 159 186 205
1.896314 1.571831 -4.744728 158 185 204
1.901818 1.572302 -4.746149 158 184 203
1.906672 1.572233 -4.745943 157 183 203
1.912058 1.572603 -4.747058 156 182 202
1.917485 1.573004 -4.748271 155 181 201
1.922949 1.573435 -4.749569 155 180 200
1.928448 1.573891 -4.750946 154 179 199
1.933211 1.573746 -4.750508 154 179 197
1.938946 1.574390 -4.752453 153 178 196
1.944514 1.574896 -4.753981 152 177 195
1.950124 1.575434 -4.755604 151 177 194
1.954983 1.575363 -4.755390 151 177 194
1.960640 1.575934 -4.757114 150 176 193
1.966054 1.576308 -4.758244 149 175 192
-1.688342 1.719498 -5.206824 183 228 244
-1.682453 1.719014 -5.205359 184 230 245
-1.676484 1.718445 -5.203636 184 230 245
-1.670597 1.717958 -5.202160 187 233 248
-1.664225 1.716966 -5.199155 190 235 249
-1.658385 1.716518 -5.197801 195 239 250
-1.653171 1.716718 -5.198406 201 244 254
-1.647653 1.716603 -5.198058 205 248 254
-1.641954 1.716296 -5.197129 208 250 255
-1.636037 1.715761 -5.195508 211 252 254
-1.630508 1.715629 -5.195107 212 252 254
-1.624824 1.715333 -5.194211 222 252 254
-1.619285 1.715188 -5.193774 224 255 255
-1.613522 1.714805 -5.192613 234 253 255
-1.608122 1.714806 -5.192617 237 255 255
-0.915691 1.722878 -5.217058 206 245 252
-0.911218 1.724683 -5.222525 198 239 246
-0.905963 1.725019 -5.223544 190 231 246
-0.900635 1.725221 -5.224153 185 227 242
-0.894396 1.723669 -5.219455 178 221 236
-0.888493 1.722750 -5.216670 174 217 232
-0.882790 1.722210 -5.215036 172 213 230
-0.877415 1.722306 -5.215327 169 210 228
-0.872101 1.722524 -5.215987 168 207 226
-0.866658 1.722489 -5.215880 166 205 223
-0.861374 1.722772 -5.216737 164 203 221
-0.856169 1.723217 -5.218087 162 201 218
-0.850714 1.723160 -5.217914 159 198 214
-0.845308 1.723204 -5.218045 157 196 211
-0.839803 1.723045 -5.217564 156 194 209
-0.350480 1.692480 -5.125011 136 164 170
-0.341770 1.675908 -5.074828 129 158 164
-0.333757 1.662286 -5.033580 124 153 159
-0.326814 1.653646 -5.007415 120 147 155
-0.320928 1.650162 -4.996867 116 143 151
-0.315415 1.648515 -4.991879 115 142 149
-0.310185 1.648314 -4.991270 115 142 149
-0.304788 1.647202 -4.987906 116 143 150
-0.299429 1.646263 -4.985060 117 144 151
-0.294009 1.644946 -4.981071 117 144 151
-0.288772 1.644625 -4.980102 117 144 151
-0.283376 1.643375 -4.976315 117 144 151
-0.278220 1.643493 -4.976673 117 144 151
-0.272965 1.643019 -4.975236 117 145 151
-0.267617 1.641955 -4.972015 118 146 151
-0.262409 1.641729 -4.971331 118 146 150
-0.257204 1.641510 -4.970667 118 146 150
-0.252002 1.641302 -4.970039 118 146 150
-0.247116 1.643186 -4.975743 117 145 149
-0.242295 1.645596 -4.983040 119 147 151
-0.237499 1.648278 -4.991161 121 149 153
-0.233481 1.656605 -5.016377 125 153 157
-0.229761 1.667471 -5.049279 129 157 160
0.676687 1.832377 -5.548634 115 144 152
0.682604 1.832769 -5.549819 115 144 152
0.688628 1.833438 -5.551845 114 143 151
0.694735 1.834317 -5.554508 113 142 150
1.329259 1.756665 -5.319369 119 157 193
1.333886 1.755474 -5.315762 120 158 194
1.338185 1.753862 -5.310880 122 160 197
1.341390 1.750835 -5.301715 131 169 206
1.345474 1.748975 -5.296082 133 172 209
1.350008 1.747714 -5.292264 131 171 207
1.354421 1.746306 -5.288000 131 171 207
1.359126 1.745285 -5.284910 131 171 207
1.363449 1.743783 -5.280360 133 172 211
1.366431 1.740586 -5.270679 142 181 220
1.369510 1.737537 -5.261447 149 190 224
1.373226 1.735317 -5.254725 156 197 229
1.377082 1.733291 -5.248590 163 204 234
1.380658 1.730930 -5.241441 171 212 240
1.383371 1.727511 -5.231087 183 225 249
1.386954 1.725199 -5.224088 195 237 254
1.390639 1.723033 -5.217527 203 245 255
1.394275 1.720822 -5.210834 208 251 255
1.398371 1.719194 -5.205904 212 252 255
1.402701 1.717866 -5.201881 216 252 255
1.407465 1.717077 -5.199494 218 253 255
1.411952 1.715957 -5.196102 221 254 254
1.416161 1.714511 -5.191722 223 255 255
1.420319 1.713013 -5.187186 227 255 255
1.808131 1.567459 -4.746432 172 200 224
1.812689 1.567131 -4.745439 172 199 223
1.817543 1.567060 -4.745224 171 199 222
1.822407 1.566999 -4.745040 170 197 221
1.827170 1.566851 -4.744591 170 196 219
1.831633 1.566447 -4.743369 170 196 218
1.836817 1.566660 -4.744015 169 196 217
1.843023 1.567743 -4.747292 167 194 215
1.849374 1.568941 -4.750922 165 192 212
1.855119 1.569621 -4.752980 164 191 211
1.861451 1.570792 -4.756527 162 189 209
1.867217 1.571482 -4.758615 161 188 208
1.872698 1.571928 -4.759965 160 187 207
1.878176 1.572369 -4.761302 159 186 207
1.883152 1.572388 -4.761360 159 186 205
1.888715 1.572897 -4.762900 158 185 204
1.893653 1.572884 -4.762861 158 185 204
1.898620 1.572895 -4.762894 158 184 204
1.904699 1.573825 -4.765709 157 183 202
1.909453 1.573657 -4.765201 157 182 202
1.915014 1.574154 -4.766708 156 181 201
1.920333 1.574450 -4.767603 155 181 199
1.925811 1.574874 -4.768888 154 180 198
1.930650 1.574776 -4.768590 154 179 198
1.936886 1.575814 -4.771733 152 178 196
1.941314 1.575379 -4.770418 153 179 196
1.947027 1.575988 -4.772259 152 178 195
1.952421 1.576335 -4.773312 151 177 194
1.957494 1.576423 -4.773576 151 177 194
2.640095 1.574883 -4.768913 98 118 127
2.643154 1.573751 -4.765485 98 118 127
2.646272 1.572658 -4.762177 98 118 127
-1.694011 1.719837 -5.224306 183 228 244
-1.687925 1.719173 -5.222288 184 230 245
-1.681972 1.718641 -5.220672 185 231 246
-1.675957 1.718041 -5.218849 187 233 248
-1.670027 1.717525 -5.217282 191 236 250
-1.663943 1.716847 -5.215222 196 240 251
-1.658609 1.716941 -5.215507 201 245 255
-1.653027 1.716777 -5.215009 206 249 254
-1.647325 1.716487 -5.214129 208 251 255
-1.641099 1.715649 -5.211582 210 251 252
-1.635811 1.715788 -5.212006 213 254 255
-1.630047 1.715427 -5.210907 222 253 255
-1.624328 1.715111 -5.209949 225 255 255
-1.619130 1.715345 -5.210660 239 255 255
-1.613403 1.715019 -5.209669 240 255 255
-0.918316 1.722375 -5.232014 205 247 253
-0.913873 1.724259 -5.237738 198 242 248
-0.909179 1.725691 -5.242087 193 235 248
-0.903383 1.725035 -5.240095 186 228 242
-0.897556 1.724311 -5.237896 180 224 237
-0.891582 1.723295 -5.234810 176 220 233
-0.885814 1.722667 -5.232900 173 216 231
-0.880418 1.722758 -5.233177 170 213 229
-0.874904 1.722619 -5.232756 168 210 227
-0.869711 1.723113 -5.234255 167 208 226
-0.864421 1.723421 -5.235192 166 206 223
-0.859312 1.724094 -5.237237 165 205 222
-0.853717 1.723797 -5.236334 163 202 219
-0.848164 1.723581 -5.235678 161 200 217
-0.842763 1.723673 -5.235957 159 197 214
-0.353054 1.699539 -5.162645 144 173 179
-0.347618 1.699213 -5.161654 144 173 179
-0.341829 1.697128 -5.155324 140 169 175
-0.334470 1.687055 -5.124723 134 162 168
-0.324546 1.663509 -5.053199 124 152 159
-0.316649 1.649751 -5.011405 116 144 151
-0.310574 1.645183 -4.997531 114 141 148
-0.304898 1.642604 -4.989697 114 141 148
-0.299795 1.643081 -4.991146 114 141 148
-0.294661 1.643404 -4.992126 115 142 149
-0.289411 1.643077 -4.991132 116 143 150
-0.284056 1.642132 -4.988264 117 144 151
-0.278742 1.641391 -4.986011 117 144 151
-0.273339 1.640088 -4.982053 117 144 150
-0.267970 1.638947 -4.978588 117 145 150
-0.262927 1.639788 -4.981141 117 145 150
-0.257788 1.640054 -4.981949 117 145 149
-0.252422 1.638859 -4.978320 117 145 149
-0.247326 1.639402 -4.979970 118 146 150
-0.242152 1.639443 -4.980093 119 147 151
-0.237005 1.639672 -4.980788 120 148 152
-0.232186 1.642229 -4.988558 120 148 152
-0.227285 1.644312 -4.994884 121 149 152
0.678330 1.831042 -5.562109 113 142 150
0.684229 1.831346 -5.563033 113 142 150
0.690281 1.832051 -5.565175 112 141 149
1.328495 1.750125 -5.316311 128 164 199
1.333512 1.749454 -5.314271 122 158 192
1.338025 1.748128 -5.310244 120 158 194
1.341213 1.745090 -5.301014 130 168 204
1.345044 1.742910 -5.294392 134 173 209
1.348224 1.739906 -5.285269 136 176 211
1.352214 1.737969 -5.279384 139 179 212
1.358011 1.738360 -5.280571 137 178 210
1.361592 1.735924 -5.273170 144 185 216
1.365094 1.733406 -5.265523 152 193 224
1.368558 1.730860 -5.257788 161 203 232
1.370849 1.726857 -5.245630 174 218 245
1.374169 1.724177 -5.237488 187 230 251
1.377655 1.721726 -5.230042 196 237 254
1.381452 1.719681 -5.223829 201 242 254
1.385426 1.717871 -5.218332 206 246 254
1.389883 1.716671 -5.214689 210 249 255
1.394474 1.715648 -5.211579 212 250 255
1.398649 1.714121 -5.206942 215 251 255
1.403080 1.712918 -5.203288 219 250 254
1.407310 1.711481 -5.198923 220 249 253
1.411653 1.710191 -5.195003 224 250 251
1.415610 1.708446 -5.189702 228 252 253
1.813512 1.567172 -4.760557 171 197 220
1.818163 1.566913 -4.759771 170 197 219
1.822850 1.566685 -4.759080 170 197 218
1.827654 1.566561 -4.758702 169 196 217
1.833508 1.567333 -4.761049 168 195 216
1.838791 1.567616 -4.761906 167 194 215
1.844170 1.567978 -4.763007 166 193 214
1.850017 1.568736 -4.765308 165 192 213
1.855530 1.569206 -4.766737 164 191 210
1.861593 1.570138 -4.769568 163 190 209
1.868096 1.571435 -4.773509 161 188 207
1.873920 1.572156 -4.775697 160 187 206
1.879464 1.572638 -4.777162 159 186 205
1.885202 1.573280 -4.779112 158 185 204
1.890136 1.573250 -4.779021 158 185 204
1.896135 1.574103 -4.781613 157 184 203
1.901790 1.574668 -4.783328 157 183 202
1.907608 1.575364 -4.785441 156 181 201
1.912901 1.575624 -4.786232 155 180 200
1.918032 1.575749 -4.786612 155 180 200
1.923470 1.576126 -4.787756 154 179 199
1.928472 1.576144 -4.787811 154 180 197
1.933784 1.576414 -4.788632 153 179 196
1.939184 1.576755 -4.789667 152 178 195
1.944252 1.576825 -4.789881 152 178 195
1.949427 1.576981 -4.790355 152 178 195
1.954781 1.577281 -4.791265 151 177 194
1.959732 1.577254 -4.791185 152 176 193
1.964950 1.577443 -4.791757 152 176 193
2.644223 1.572377 -4.776370 97 117 126
2.647526 1.571389 -4.773368 96 116 125
2.650920 1.570458 -4.770540 95 115 125
-1.699325 1.719781 -5.240694 184 228 244
-1.693481 1.719383 -5.239479 184 230 245
-1.687642 1.718986 -5.238269 185 231 246
-1.681672 1.718453 -5.236647 187 233 248
-1.675682 1.717896 -5.234949 192 237 251
-1.669784 1.717431 -5.233531 198 242 251
-1.664026 1.717105 -5.232539 202 246 254
-1.658143 1.716649 -5.231150 206 251 255
-1.652406 1.716342 -5.230214 208 253 255
-1.646190 1.715533 -5.227749 210 251 255
-1.640918 1.715706 -5.228276 214 254 255
-1.634966 1.715167 -5.226632 226 251 255
-1.629504 1.715141 -5.226552 229 254 255
-1.624282 1.715366 -5.227240 239 254 255
-1.618617 1.715125 -5.226505 242 255 255
-0.920827 1.721628 -5.246322 208 247 252
-0.916249 1.723282 -5.251361 200 241 247
-0.911237 1.724133 -5.253955 193 235 247
-0.905891 1.724359 -5.254643 187 229 243
-0.900402 1.724314 -5.254506 182 224 238
-0.894542 1.723552 -5.252185 179 221 235
-0.889000 1.723400 -5.251722 174 217 232
-0.883421 1.723172 -5.251026 171 214 230
-0.877952 1.723158 -5.250984 168 211 228
-0.872595 1.723365 -5.251614 166 209 226
-0.867233 1.723564 -5.252222 165 207 225
-0.862019 1.724062 -5.253737 164 205 223
-0.856517 1.723987 -5.253509 164 203 221
-0.851099 1.724080 -5.253792 163 202 219
-0.845571 1.723952 -5.253402 161 200 216
-0.354192 1.699631 -5.179291 146 175 180
-0.348671 1.698977 -5.177295 147 176 181
-0.343405 1.699567 -5.179095 146 175 180
-0.337939 1.699168 -5.177879 141 170 175
-0.331086 1.691672 -5.155035 134 163 169
-0.320066 1.662283 -5.065478 125 153 159
-0.312024 1.647642 -5.020863 118 146 151
-0.305992 1.643292 -5.007608 116 144 149
-0.300171 1.639948 -4.997418 114 141 147
-0.294971 1.639931 -4.997366 114 141 147
-0.289845 1.640339 -4.998608 115 143 148
-0.284411 1.638987 -4.994489 116 143 149
-0.279133 1.638501 -4.993008 117 144 150
-0.273811 1.637731 -4.990662 116 144 150
-0.268305 1.635810 -4.984808 117 144 150
-0.262969 1.634865 -4.981929 118 145 150
-0.257776 1.634795 -4.981716 118 146 150
-0.252507 1.634230 -4.979994 117 145 149
-0.247391 1.634655 -4.981289 118 146 150
-0.242092 1.633861 -4.978868 118 146 150
-0.236803 1.633098 -4.976543 119 147 151
-0.231747 1.633943 -4.979119 120 148 151
-0.226633 1.634413 -4.980552 119 147 151
0.679758 1.829098 -5.573816 112 141 149
0.685854 1.829894 -5.576239 111 140 148
0.691805 1.830294 -5.577459 111 140 148
1.327841 1.743737 -5.313694 128 167 200
1.332978 1.743228 -5.312143 121 160 193
1.337635 1.742096 -5.308695 120 160 193
1.340397 1.738518 -5.297789 132 172 205
